0.0 1940.610217010784 191.13342364264318
0.0 1945.877996320009 387.05919887999846
0.0 1943.5458218721162 589.568179503813
0.0 1931.8321024811005 800.1910570754027
0.0 1837.0419936376236 981.9194028085531
0.0 1435.9480204464955 959.4697924248529
0.0 1181.9329831916248 969.987331486214
0.0 989.24238687998 989.24238687998
0.0 822.1736962760846 1001.821547558107
0.0 683.3513866141108 1022.7076231321306
0.0 538.8064701921155 1008.0360051501697
0.0 419.0383584397734 1011.648088099859
0.0 310.6046046622747 1023.9261592334635
0.0 206.01538004903128 1035.7092561058114
0.0 102.72196306537923 1042.9535935524623
0.0 -4.0353114086690045e-13 1054.0
0.0 -104.48627159131212 1060.866918632562
0.0 -212.06318003153206 1066.1135997983113
0.0 -319.31314497990934 1052.6343693054296
0.0 -409.08858919828174 987.6272202545651
0.0 -432.2708076694406 808.7217994074412
0.0 -429.45579012415317 642.7260103098671
0.0 -432.65621979960684 527.1931291933861
0.0 -436.9919907732869 436.99199077328586
0.0 -441.3889688701233 362.238565257441
0.0 -442.3418337449545 295.56336396642774
0.0 -439.19678964548115 234.75557493934613
0.0 -439.7666574753728 182.157313805782
0.0 -445.9341964512096 135.27265960057866
0.0 -446.25730258347 88.76609651733752
0.0 -444.8475728224721 43.813661727312706
0.0 -447.0 -9.377976720930034e-13
0.0 -447.83312700248854 -44.10771314830326
0.0 -447.23808786387286 -88.96118683935552
0.0 -448.80501745840564 -136.14351363234394
0.0 -448.08157326797357 -185.60146469706967
0.0 -448.01600228896376 -239.46954230760798
0.0 -447.3306514187685 -298.8967853645472
0.0 -447.57305249702364 -367.313711530752
0.0 -478.71129086329125 -478.71129086329404
0.0 -499.26751463678715 -608.3592267964755
0.0 -495.45750738744397 -740.0079549492666
0.0 -513.35104645677091 -960.4122568753598
0.0 -566.7541633326952 -1368.2655876492167
0.0 -455.7777461 -1533.0184178429995
0.0 -318.192315208303 -1599.6607923376694
0.0 -158.5917330532274 -1610.2088877556148
0.0 1.12998833453241476e-12 -1604.0
0.0 158.00363021125227 -1604.2377793955814
0.0 319.19231555053 -1599.660792337669
0.0 485.35598036946055 -1600.0042413442534
0.0 657.0674533708581 -1586.3011573218796
0.0 837.2006046029703 -1566.2921654826794
0.0 1018.360237124929 -1524.0837993505668
0.0 1236.4325108349426 -1506.5973736039764
0.0 1542.9069965490437 -1542.9069965490496
0.0 1802.6603772418991 -1479.4051386696253
0.0 1929.8409701542041 -1289.4785108385017
0.0 1964.9205769681319 -1050.2719296483288
0.0 1975.2544405091285 -818.1771783965685
0.0 1975.124852951277 -599.1475738532176
0.0 1949.8011374416205 -387.8395601680708
0.0 1943.5957711907997 -191.42747506364032
0.0 1939.0 -9.085807807702058e-12
200.0 1938.6198475574404 190.9373893619743
200.0 1938.0317140767854 385.49847630385904
200.0 1933.9764185147974 586.6653327312574
200.0 1926.2888252860378 797.8949564812006
200.0 1841.4515999593716 984.2763864926713
200.0 1612.2195782546426 1077.2506818249979
200.0 1241.4547881005628 1018.8356143668059
200.0 1025.3048327205015 1025.3048327204865
200.0 845.0118545059838 1029.6499238791591
200.0 692.2405103424328 1036.011136928966
200.0 556.248149454686 1040.6670919310543
200.0 430.13617797837 1038.4405945426824
200.0 315.24915949835554 1039.237204605176
200.0 207.57610262517028 1043.5555383490353
200.0 102.91799734604881 1044.9439630058057
200.0 1.0529549910730185e-11 1045.0
200.0 -103.31006590734594 1048.9247019124966
200.0 -208.35646391321464 1047.4786794706522
200.0 -316.9908675618623 1044.9788466195753
200.0 -415.97689098084203 1004.2570518397731
200.0 -482.2388617729858 902.2054534283725
200.0 -458.9010124741837 686.7938997619075
200.0 -450.419231756182 548.8374218875484
200.0 -446.18437892870617 446.1843789287168
200.0 -452.2111152171966 371.1200712357381
200.0 -448.1621210310681 299.4523555975712
200.0 -448.8979235533096 239.94093904443858
200.0 -449.00545280048294 185.98414812943957
200.0 -447.8480771226719 135.85322895509447
200.0 -447.23808786387184 88.9611868393607
200.0 -446.83794227581575 44.00969600797907
200.0 -445.0 6.4873206959510635e-12
200.0 -446.83794227581706 -44.00969600796604
200.0 -448.21887314427767 -89.15627716136379
200.0 -445.93419645121145 -135.27265960057252
200.0 -444.38605513793186 -184.07073096760112
200.0 -440.96063217418134 -235.69836841299167
200.0 -439.01595529574877 -293.34108303434266
200.0 -439.8429479634034 -360.9697786891068
200.0 -442.6488450227864 -442.6488450227711
200.0 -443.44090563039776 -540.3343069005454
200.0 -494.45750738744397 -740.0079549492666
200.0 -513.3510464035091 -960.4122568753598
200.0 -566.7541633326952 -1368.2655876492167
200.0 -465.0360529616461 -1533.0184178429995
200.0 -318.192315208303 -1599.6607923376694
200.0 -158.5917330532274 -1610.2088877556148
200.0 1.1299881653241476e-12 -1604.0
200.0 158.00363021125227 -1604.2377793955814
200.0 318.1923152083053 -1599.660792337669
200.0 485.35598036946055 -1600.0042413442534
200.0 657.0674533708581 -1586.3011573218796
200.0 837.2006046029703 -1566.2921654826794
200.0 1018.360237124929 -1524.0837993505668
200.0 1236.4325108349426 -1506.5973736039764
200.0 1542.9069965490437 -1542.9069965490496
200.0 1802.6603772418991 -1479.4051386696253
200.0 1929.8409701542041 -1289.4785108385017
200.0 1964.9205769681319 -1050.2719296483288
200.0 1954.9290907938632 -809.7581428845768
200.0 1950.8370816321058 -520.1901416400383
200.0 1950.781922722016 -388.03465049012726
200.0 1943.5957711907959 -191.42747506368048
200.0 1939.0 -4.9170818819777886e-11
400.0 1949.5668795508386 192.01557790555913
400.0 1942.9356404788095 386.4739279138995
400.0 1933.9764185148094 586.6653327312174
400.0 1930.9082229486107 799.808373642986
400.0 1859.9719465107078 994.1757179659787
400.0 1657.9504069313055 1107.8070446410413
400.0 1255.3689762611134 1030.2546934817256
400.0 1031.6687937512017 1031.668793751144
400.0 846.2806410743324 1031.195944785867
400.0 690.5737996433953 1033.5167280920439
400.0 552.4769755600993 1033.611721816256
400.0 425.1612933576449 1026.4301606200272
400.0 312.9268820803411 1031.581681919312
400.0 206.4055606930949 1037.6708266666117
400.0 102.62394592508164 1041.958408825787
400.0 3.2225116881232755e-11 1048.0
400.0 -103.89816874930145 1054.895810272532
400.0 -211.28281874343352 1062.1904586767052
400.0 -318.15200627085744 1048.806607962511
400.0 -409.0885891982493 987.6272202545787
400.0 -439.34175872180316 821.9506183726812
400.0 -440.01162455150336 658.5239329436303
400.0 -441.5377257778795 538.0152755404796
400.0 -444.063058585137 444.06305858516674
400.0 -445.25402113692417 365.4105316782748
400.0 -448.16212103106164 299.4523555975809
400.0 -447.1340810246078 238.9981455707962
400.0 -443.46217560541123 183.68804753525853
400.0 -446.8911367869368 135.56294427784962
400.0 -446.2573025834667 88.76609651735419
400.0 -447.833127002487 44.107713148318304
400.0 -447.0 1.6154338703847673e-11
400.0 -444.84757282247364 -43.813661727297365
400.0 -445.2765173030699 -88.57100619530584
400.0 -444.97725611548213 -134.98237492330847
400.0 -444.3860551379358 -184.07073096759152
400.0 -446.25215976027664 -238.52674883393792
400.0 -444.836242581873 -297.2300746654702
400.0 -446.8000420436761 -366.6793182465699
400.0 -447.59859249110195 -447.59859249106717
400.0 -442.8065123462457 -539.561296447173
400.0 -494.45750738744397 -740.0079549492666
400.0 -513.3510464035091 -960.4122568753598
400.0 -566.7541633326952 -1368.2655876492167
400.0 -465.0360529616461 -1533.0184178429995
400.0 -318.192315208303 -1599.6607923376694
400.0 -158.5917330532274 -1610.2088877556148
400.0 1.1299881653241476e-12 -1604.0
400.0 158.00363021125227 -1604.2377793955814
400.0 318.1923152083053 -1599.660792337669
400.0 485.35598036946055 -1600.0042413442534
400.0 657.0674533708581 -1586.3011573218796
400.0 837.2006046029703 -1566.2921654826794
400.0 1018.360237124929 -1524.0837993505668
400.0 1236.4325108349426 -1506.5973736039764
400.0 1542.9069965490437 -1542.9069965490496
400.0 1802.6603772418991 -1479.4051386696253
400.0 1929.8409701542041 -1289.4785108385017
400.0 1964.9205769681319 -1050.2719296483288
400.0 1977.1021995741164 -818.9425452613822
400.0 1983.7373159728413 -601.7601359485916
400.0 1971.378413610475 -392.131547252509
400.0 1957.5283573642023 -192.7997150283369
400.0 1958.0 -9.186948903982626e-11
600.0 1948.5716948241704 191.91756076518757
600.0 1942.935640478818 386.4739279138576
600.0 1937.8041798577513 587.8264714401934
600.0 1935.5276206111846 801.7217908047697
600.0 1853.7984976602904 990.875940808157
600.0 1554.8481750058104 1038.91633574658
600.0 1250.730913540959 1026.4483337767167
600.0 1017.5266581274923 1017.5266581273914
600.0 841.2054948010451 1025.011861158947
600.0 691.6849401094569 1035.179667316634
600.0 548.7058016655131 1026.5563517014575
600.0 424.3959264929368 1024.5824015549954
600.0 310.0240353078182 1022.0122785619832
600.0 204.64974779497166 1028.8437591429781
600.0 101.93782594279682 1034.9921157390795
600.0 5.440278351253516e-11 1040.0
600.0 -102.91799734598362 1044.943963005812
600.0 -208.9417348792177 1050.4210353118708
600.0 -316.12001353005394 1042.1080256123923
600.0 -407.94053890113287 984.8555816570536
600.0 -463.38299229990884 866.928602854458
600.0 -448.34517804678256 670.9959771281784
600.0 -451.0536250403219 549.6104323409306
600.0 -451.1341263969925 451.13412639704217
600.0 -451.4381047638179 370.4856779515939
600.0 -448.9935906433578 300.0079258306102
600.0 -448.0160022889509 239.4695423076319
600.0 -449.9293323329862 186.36683156182409
600.0 -447.84807712266604 135.8532289551138
600.0 -445.27651730306155 88.57100619534762
600.0 -446.8379422758139 44.009696007998336
600.0 -446.0 2.5734499542614178e-11
600.0 -443.8523880958024 -43.71564458695827
600.0 -444.2957320226686 -88.37591587328016
600.0 -443.0633754440206 -134.40180556879008
600.0 -439.7666574753833 -182.15731380575676
600.0 -440.9606321741915 -235.69836841297266
600.0 -436.52154645885366 -291.6743723352651
600.0 -434.4318747898796 -356.5290256999427
600.0 -432.0422433050066 -432.04224330495447
600.0 -425.04350038967397 -517.917003753008
600.0 -421.122236628897 -630.2539661253036
600.0 -406.81538388088273 -768.0980511326054
600.0 -411.6332016066406 -900.9004003565559
600.0 -416.8487965374933 -1374.166322111426
600.0 -314.0954184460651 -1579.0643014491814
600.0 -160.94414442124105 -1634.0933211957372
600.0 -1.022704696294366e-10 -1621.0
600.0 158.00363021114993 -1604.2377793955914
600.0 316.2414119880425 -1589.8529395336566
600.0 479.84057150152495 -1581.822374965372
600.0 650.1791515881863 -1569.671325736718
600.0 831.5438437609591 -1555.7091103105522
600.0 1006.1376919984016 -1505.791467879975
600.0 1201.5408802058487 -1464.0817986691025
600.0 1466.5394641808032 -1466.5394641809962
600.0 1975.8147187950485 -1621.5092343224085
600.0 1932.3353789910293 -1291.145221537684
600.0 1970.2121045541548 -1053.1003100694104
600.0 1983.5693563016775 -821.6213292879809
600.0 1988.5220176514893 -603.211559334907
600.0 1980.2054811340956 -393.88736015069725
600.0 1967.4802046309198 -193.7798864316754
600.0 1957.0 -1.3401785974758413e-10
800.0 1944.5909559174859 191.52549220382758
800.0 1900.692525771818 470.16767605870564
800.0 1887.0863420639557 572.4413835456687
800.0 1858.8456194127627 769.9590659184308
800.0 1828.2227809942085 977.2054354401648
800.0 1750.24353389694 1169.4753405061392
800.0 1575.3953039533494 1292.893513125398
800.0 1182.9896449251783 1182.9896449250098
800.0 947.7835665405689 1154.8776173238612
800.0 763.9090704020351 1143.2707169159448
800.0 599.61664924275 1121.8038482510642
800.0 459.6028022705533 1109.579318546022
800.0 331.5051014246757 1092.8258634061583
800.0 214.20917357378767 1076.9022378827315
800.0 103.31006590743401 1048.924701912488
800.0 5.69741865628623e-11 1042.0
800.0 -102.0358430829957 1035.9873004657645
800.0 -204.45465747282583 1027.8629738626007
800.0 -310.6046046621981 1023.9261592334867
800.0 -417.8903081426021 1008.8764495023565
800.0 -507.2228888247018 948.9472804388683
800.0 -554.4590925535 829.8066730779823
800.0 -510.68659375168716 622.2734149570422
800.0 -497.80317395529136 497.8031739553676
800.0 -494.7266901521204 406.0117018647712
800.0 -482.2523751354513 322.2307351514065
800.0 -483.2928528628785 258.3254117806842
800.0 -476.7218387758086 197.46465110042348
800.0 -465.07300316584247 141.0783531457051
800.0 -459.9882965091079 91.49736102560031
800.0 -455.7946048158626 44.89185027097473
800.0 -450.0 3.566784737377964e-11
800.0 -442.85720336913107 -43.61762744661922
800.0 -436.44944977944454 -86.81519329714219
800.0 -431.5800914152367 -130.9183894417279
800.0 -424.9845849552061 -176.03437888790702
800.0 -416.2668367724416 -222.4992597818372
800.0 -408.2515796405719 -272.78498441259154
800.0 -401.19242529528736 -329.2501144808993
800.0 -388.908729652633 -388.90872965256926
800.0 -383.1735436348803 -466.89831383106156
800.0 -494.45750738744397 -740.0079549492666
800.0 -513.3510464035091 -960.4122568753598
800.0 -566.7541633326952 -1368.2655876492167
800.0 -465.0360529616461 -1533.0184178429995
800.0 -318.192315208303 -1599.6607923376694
800.0 -158.5917330532274 -1610.2088877556148
800.0 1.1399881653241476e-12 -1604.0
800.0 158.00363021125227 -1604.2377793955814
800.0 319.1923152083053 -1599.660792337669
800.0 486.35598036946055 -1600.0042413442534
800.0 657.0674533708581 -1586.3011573218796
800.0 840.2006046029703 -1566.2921654826794
800.0 1019.360237124929 -1524.0837993505668
800.0 1236.4325108349426 -1506.5973736039764
800.0 1542.9069965490437 -1542.9069965490496
800.0 1802.6603772418991 -1479.4051386696253
800.0 1929.8409701542041 -1289.4785108385017
800.0 1964.9205769681319 -1050.2719296483288
800.0 2088.8916230079426 -865.2472405776532
800.0 2074.646647867373 -629.337180287859
800.0 2050.8220213231184 -407.9338633359075
800.0 2021.220179871214 -199.0728120095189
800.0 1986.0 -1.788243826955515e-10
